ncols        35
nrows        35
xllcorner    1681342.500000000000
yllcorner    4848769.500000000000
cellsize     1.000000000000
 67.0699996948 66.9800033569 66.8000030518 66.7300033569 66.0199966431 66.1900024414 67.0299987793 72.6200027466 75.5699996948 75.6900024414 75.8600006104 75.9700012207 76.0899963379 76.1800003052 76.2699966431 76.4000015259 76.4899978638 76.6200027466 76.7900009155 77.2900009155 75.5699996948 75.0400009155 74.3700027466 73.3099975586 73.2600021362 68.9199981689 70.3199996948 61.5000000000 56.2799987793 61.9000015259 58.9199981689 56.9300003052 63.2599983215 53.5600013733 61.6599998474
 67.3199996948 67.2300033569 67.0599975586 66.9899978638 66.8399963379 66.7300033569 66.0400009155 68.0000000000 69.6600036621 73.3700027466 75.5800018311 75.7600021362 75.8499984741 75.9400024414 76.0400009155 76.1299972534 76.2399978638 76.3899993896 77.0599975586 77.3899993896 75.2900009155 75.0000000000 73.9700012207 73.5699996948 73.4899978638 73.1900024414 72.9199981689 68.5199966431 63.9900016785 64.0100021362 63.9500007629 63.9000015259 63.8400001526 63.8400001526 63.7900009155
 67.5800018311 67.4899978638 67.3099975586 67.2099990845 67.1100006104 67.0100021362 66.6100006104 65.8399963379 65.7300033569 65.7500000000 71.7399978638 73.8099975586 75.6299972534 75.7200012207 75.8099975586 75.9199981689 76.0299987793 76.1999969482 75.6299972534 73.5599975586 73.8899993896 74.4100036621 74.0100021362 73.8000030518 73.3700027466 73.1100006104 72.8499984741 68.4700012207 64.2699966431 64.2600021362 64.1999969482 64.1900024414 64.1100006104 64.1100006104 64.0299987793
 67.8300018311 67.7600021362 67.5999984741 67.4700012207 67.3700027466 67.7399978638 66.2799987793 66.0800018311 65.9499969482 65.8099975586 65.7099990845 67.4199981689 72.8899993896 75.5100021362 75.6200027466 75.7300033569 75.8399963379 76.8199996948 73.9800033569 73.2699966431 73.3799972534 73.5299987793 73.6500015259 73.6100006104 73.3000030518 73.0500030518 72.8000030518 68.4700012207 64.5800018311 64.5500030518 64.4800033569 64.4599990845 64.4000015259 64.4000015259 64.3099975586
 68.3000030518 68.1200027466 67.9000015259 67.7699966431 68.0100021362 69.1600036621 69.0299987793 68.3000030518 64.8399963379 64.6800003052 65.9100036621 65.7699966431 66.4800033569 69.4100036621 71.9199981689 75.1900024414 75.7799987793 76.3799972534 72.7399978638 73.0199966431 73.1200027466 73.2600021362 73.3399963379 73.5000000000 73.2500000000 72.9899978638 72.7099990845 68.7399978638 65.1999969482 65.1399993896 65.0699996948 64.8399963379 64.6800003052 64.6600036621 63.8600006104
 68.9700012207 68.4599990845 68.2500000000 68.0699996948 68.9499969482 69.3199996948 69.2200012207 69.1299972534 68.9899978638 67.6299972534 66.1200027466 66.0100021362 65.9400024414 65.6999969482 65.8300018311 66.7200012207 70.9400024414 72.4400024414 72.6500015259 72.7799987793 72.8899993896 73.0400009155 73.0999984741 73.2900009155 73.1900024414 72.9199981689 71.5299987793 67.6600036621 65.6600036621 65.6200027466 65.5400009155 65.1100006104 64.9700012207 64.9400024414 62.4399986267
 68.9000015259 68.9899978638 69.0199966431 68.4100036621 69.6399993896 69.5100021362 69.3700027466 69.2699966431 69.1800003052 68.8899993896 68.1999969482 67.4499969482 65.9700012207 63.9700012207 63.5800018311 63.3800010681 63.3699989319 68.0199966431 72.3300018311 72.5100021362 72.6699981689 72.8000030518 72.8799972534 73.0000000000 73.1299972534 72.8499984741 70.5100021362 67.3300018311 65.9199981689 65.8499984741 66.5100021362 66.2699966431 66.2500000000 65.9700012207 65.1900024414
 68.6900024414 68.7900009155 69.1999969482 69.8399963379 69.8199996948 69.6900024414 69.5400009155 69.4400024414 69.3399963379 69.2600021362 69.1699981689 69.0999984741 65.6900024414 64.0500030518 63.8699989319 63.7099990845 63.5999984741 63.5600013733 64.1800003052 67.2600021362 69.3799972534 71.9100036621 72.6299972534 72.8099975586 72.9400024414 72.8199996948 68.9400024414 67.0100021362 66.1600036621 66.0899963379 66.9599990845 66.9100036621 66.8399963379 66.8099975586 66.4599990845
 68.4899978638 68.6200027466 68.9700012207 70.0400009155 70.0299987793 69.8799972534 69.7500000000 69.6699981689 69.5400009155 69.4400024414 69.3799972534 69.2500000000 65.8899993896 64.3399963379 64.1699981689 63.9700012207 63.8600006104 63.7599983215 63.6300010681 63.5999984741 65.0199966431 67.5699996948 67.9700012207 72.5299987793 72.6699981689 72.6500015259 68.7799987793 66.4499969482 66.3799972534 66.3499984741 67.1999969482 67.1699981689 67.0999984741 67.0899963379 66.9800033569
 68.2799987793 68.3399963379 69.0599975586 70.2900009155 70.1800003052 70.0500030518 69.9599990845 69.8399963379 69.7500000000 69.6500015259 69.5800018311 65.6299972534 64.8399963379 64.6200027466 64.4800033569 64.3199996948 64.1699981689 64.0699996948 63.9599990845 63.8699989319 63.7200012207 63.6300010681 63.5900001526 64.7300033569 69.6900024414 65.6800003052 68.5899963379 66.4300003052 66.6399993896 66.6800003052 66.8799972534 66.9199981689 66.9700012207 66.9899978638 67.0299987793
 68.0800018311 68.1900024414 69.0500030518 70.4899978638 70.3799972534 70.2399978638 70.1500015259 70.0599975586 69.9499969482 69.8499984741 67.1399993896 65.3300018311 65.0999984741 64.9499969482 64.8000030518 64.5899963379 64.4499969482 64.3700027466 64.3099975586 64.1200027466 63.9900016785 63.8800010681 63.7799987793 63.7500000000 64.1999969482 63.7799987793 63.2799987793 63.1399993896 64.0999984741 66.1800003052 66.6500015259 66.7300033569 66.7699966431 66.8099975586 66.8600006104
 68.1399993896 68.7699966431 70.5899963379 71.5999984741 70.7300033569 70.4599990845 70.3499984741 70.2600021362 70.1600036621 70.0400009155 67.1399993896 65.5699996948 65.4599990845 65.2699966431 65.0899963379 64.9300003052 64.7799987793 64.6600036621 64.5299987793 64.3899993896 64.2600021362 64.1200027466 64.0100021362 63.9099998474 63.8400001526 63.8400001526 63.7299995422 63.5200004578 63.4300003052 63.8600006104 64.6800003052 64.9499969482 64.8799972534 66.5800018311 66.6699981689
 67.9700012207 69.4499969482 69.6999969482 69.7900009155 69.9700012207 70.3300018311 70.5400009155 70.4499969482 70.3799972534 67.4700012207 65.1500015259 65.4100036621 65.5800018311 66.9000015259 65.4000015259 65.1999969482 65.0800018311 65.0000000000 64.8099975586 64.6399993896 64.4899978638 64.3700027466 64.2600021362 64.1500015259 64.0299987793 63.9399986267 63.8699989319 63.8199996948 63.3800010681 59.2799987793 62.2700004578 64.0400009155 64.6299972534 65.0800018311 65.7699966431
 67.8399963379 69.2900009155 69.5299987793 69.5899963379 69.7099990845 69.8399963379 70.0400009155 70.4800033569 70.5100021362 65.8799972534 64.8000030518 65.0599975586 65.3300018311 68.7699966431 68.8300018311 66.5400009155 67.7099990845 65.2300033569 65.0400009155 64.8899993896 64.7699966431 64.6299972534 64.4899978638 64.3799972534 64.2799987793 64.1699981689 64.0599975586 63.9199981689 58.5699996948 58.6399993896 58.8100013733 59.0400009155 61.7999992371 62.6899986267 63.7900009155
 65.8600006104 69.0999984741 69.3499984741 69.4300003052 69.5699996948 69.6399993896 69.7399978638 69.8700027466 66.4499969482 64.3199996948 64.4899978638 64.8899993896 68.3099975586 69.2099990845 69.6500015259 68.8199996948 68.6600036621 68.5299987793 66.7099990845 65.1699981689 65.0000000000 64.8399963379 64.6999969482 64.6200027466 64.4899978638 64.3799972534 64.3600006104 57.6500015259 57.0999984741 57.6599998474 58.5600013733 58.6599998474 58.6899986267 58.6399993896 58.7299995422
 58.2500000000 68.4300003052 69.1200027466 69.2099990845 69.3399963379 69.4899978638 69.5999984741 65.4400024414 63.7900009155 64.0000000000 64.1999969482 69.1800003052 69.3899993896 69.3700027466 69.2200012207 69.0199966431 68.8899993896 68.7399978638 68.6100006104 68.5400009155 65.3499984741 65.0999984741 64.9700012207 64.8600006104 64.7500000000 64.6399993896 64.2799987793 52.9599990845 52.9099998474 53.7099990845 57.2700004578 58.5000000000 58.7200012207 58.7400016785 58.6599998474
 55.5999984741 68.4700012207 68.7399978638 69.0299987793 69.1600036621 69.2900009155 67.2699966431 64.2399978638 63.5400009155 63.7400016785 66.3399963379 69.2399978638 69.3099975586 69.4000015259 69.3899993896 69.2399978638 69.0899963379 68.9599990845 68.4100036621 65.5400009155 65.6100006104 65.3899993896 65.2200012207 65.0899963379 64.9599990845 64.7500000000 54.8199996948 51.5000000000 51.4900016785 53.1800003052 58.2999992371 58.6599998474 58.8699989319 59.0600013733 58.9799995422
 55.6899986267 68.5699996948 68.8799972534 68.7600021362 68.9100036621 69.0599975586 66.8600006104 63.9900016785 63.2400016785 63.4399986267 66.3000030518 69.0699996948 69.1800003052 69.2799987793 69.3799972534 69.4000015259 69.3399963379 68.0299987793 65.0899963379 65.2900009155 65.4899978638 65.5299987793 65.4599990845 65.3099975586 65.1600036621 61.5499992371 59.0999984741 51.5800018311 51.5499992371 56.9900016785 58.5299987793 58.7599983215 59.0600013733 59.2999992371 59.1599998474
 61.8800010681 52.7999992371 59.0299987793 60.1199989319 56.1899986267 64.4700012207 62.4199981689 62.7700004578 62.9399986267 63.2500000000 65.2099990845 68.6800003052 69.0500030518 69.1600036621 69.2200012207 69.3600006104 69.4700012207 66.6399993896 64.8300018311 64.3799972534 64.8199996948 65.3799972534 65.6100006104 65.5500030518 65.3099975586 63.3600006104 59.2900009155 59.4399986267 57.7500000000 58.3899993896 58.6699981689 58.9199981689 59.1500015259 60.9900016785 66.4100036621
 69.1299972534 67.0599975586 59.1100006104 52.2700004578 54.1699981689 53.2799987793 54.2099990845 55.3600006104 57.7200012207 62.8899993896 63.0299987793 63.9399986267 66.6699981689 69.0000000000 69.1100006104 69.1900024414 67.6200027466 64.3799972534 64.5400009155 64.6600036621 64.8399963379 65.0699996948 65.2900009155 65.5000000000 65.5500030518 63.5699996948 61.6800003052 60.1599998474 61.7999992371 60.2200012207 58.7799987793 59.0099983215 60.3100013733 66.2699966431 66.5800018311
 69.2699966431 69.1900024414 64.2699966431 56.0400009155 50.2999992371 51.9300003052 48.9700012207 47.6699981689 49.6699981689 57.2099990845 59.8199996948 62.9900016785 63.2599983215 64.4300003052 67.5800018311 67.5800018311 63.8800010681 64.0599975586 64.2399978638 64.4300003052 64.5999984741 64.7699966431 64.9800033569 65.1600036621 65.3799972534 65.5500030518 65.3700027466 63.2599983215 62.0099983215 60.8400001526 61.0900001526 60.6599998474 60.3699989319 61.9300003052 65.5800018311
 69.4499969482 69.3799972534 64.0800018311 57.6199989319 54.1300010681 54.6199989319 49.1500015259 48.3400001526 47.6199989319 49.2400016785 51.8499984741 60.4199981689 62.8300018311 63.0699996948 64.1200027466 63.4000015259 63.5900001526 63.7599983215 63.9399986267 64.1200027466 64.3000030518 64.4700012207 64.6800003052 64.8700027466 65.0899963379 65.2699966431 65.0800018311 64.5400009155 63.1399993896 62.9099998474 61.6399993896 61.1199989319 62.3199996948 61.9199981689 61.7900009155
 69.8099975586 66.7500000000 57.9199981689 57.7999992371 57.6800003052 57.5699996948 52.7599983215 56.4700012207 48.0600013733 54.9799995422 47.6699981689 52.5000000000 55.8300018311 62.0499992371 62.9099998474 63.1399993896 63.2999992371 63.4700012207 63.6399993896 63.8199996948 63.9900016785 64.1600036621 64.3499984741 64.5899963379 64.8199996948 64.6999969482 63.7999992371 63.5299987793 63.3300018311 63.1699981689 63.0400009155 62.8800010681 62.7000007629 62.2099990845 61.8600006104
 67.3300018311 59.4000015259 58.0999984741 58.0099983215 57.9000015259 57.7900009155 57.7299995422 57.5699996948 57.5000000000 55.3800010681 53.9700012207 52.2200012207 48.8400001526 54.2900009155 58.4000015259 62.8499984741 63.0200004578 63.2000007629 63.3400001526 63.5299987793 63.7000007629 63.8699989319 64.1100006104 64.3799972534 64.5100021362 64.2500000000 63.9500007629 63.7999992371 63.6300010681 63.4799995422 63.2799987793 63.1300010681 62.9099998474 62.2099990845 61.7700004578
 58.5000000000 58.3699989319 58.2900009155 58.1800003052 58.1300010681 58.0000000000 57.8899993896 57.7299995422 57.6300010681 57.5099983215 54.6500015259 54.0099983215 47.7000007629 49.8600006104 51.3800010681 56.2299995422 60.6100006104 62.9099998474 63.0800018311 63.2400016785 63.4099998474 63.5900001526 63.8300018311 63.9700012207 64.1299972534 64.2099990845 64.2699966431 64.1299972534 63.9199981689 63.7500000000 63.6300010681 63.4099998474 62.7099990845 62.0299987793 61.7799987793
 58.6300010681 58.5299987793 58.4799995422 58.3800010681 58.3400001526 58.2200012207 57.9900016785 57.9199981689 57.8199996948 57.6800003052 57.6100006104 54.0000000000 60.9799995422 53.1500015259 54.8199996948 48.5999984741 53.3499984741 57.7099990845 62.5000000000 62.9599990845 63.1599998474 63.3300018311 63.5499992371 63.6899986267 63.8400001526 63.9700012207 64.1600036621 64.2799987793 64.2099990845 64.0699996948 63.8600006104 63.6599998474 62.6699981689 61.7799987793 69.2600021362
 58.8499984741 58.7500000000 58.6599998474 58.5800018311 58.5400009155 58.5499992371 57.9000015259 57.7500000000 57.9399986267 57.9099998474 57.8800010681 53.4399986267 61.4500007629 56.6100006104 56.1300010681 54.2599983215 50.9000015259 50.1599998474 55.3199996948 59.5299987793 62.8800010681 63.0499992371 63.2599983215 63.3800010681 63.5400009155 63.7000007629 63.9300003052 64.0699996948 64.2699966431 64.3899993896 64.1800003052 64.0000000000 63.9000015259 63.5900001526 52.8300018311
 59.0900001526 58.9700012207 58.9099998474 58.8300018311 58.7299995422 58.5900001526 58.1199989319 58.0299987793 58.2599983215 58.1399993896 58.0900001526 48.4500007629 62.7500000000 62.9599990845 60.8899993896 55.3300018311 50.2099990845 52.7599983215 47.9399986267 52.0400009155 56.4500007629 60.8699989319 62.9300003052 63.0800018311 63.2999992371 63.4399986267 63.6399993896 63.7999992371 64.0299987793 64.2099990845 64.3700027466 64.4000015259 64.2900009155 67.8399963379 70.3199996948
 59.3300018311 59.2400016785 59.1699981689 59.0499992371 58.9300003052 58.8199996948 58.7400016785 58.5999984741 58.4900016785 55.3699989319 47.9700012207 59.4000015259 62.9300003052 63.2099990845 63.3499984741 63.0099983215 57.8100013733 52.6699981689 55.0900001526 50.3600006104 49.0499992371 53.5000000000 57.7999992371 62.7200012207 63.0099983215 63.1699981689 63.4199981689 63.5699996948 63.7700004578 63.9599990845 64.9300003052 65.3099975586 65.1200027466 69.6200027466 70.6800003052
 60.8499984741 59.4799995422 59.3600006104 59.2599983215 59.1699981689 59.0400009155 58.9599990845 58.8100013733 58.7900009155 55.3400001526 47.8899993896 62.6800003052 62.9399986267 63.1699981689 63.4099998474 63.4900016785 63.3400001526 64.8199996948 57.0099983215 50.8300018311 48.3699989319 48.9099998474 50.5299987793 55.4500007629 61.7700004578 62.8600006104 63.1199989319 63.2599983215 63.5099983215 63.7099990845 65.2399978638 66.8099975586 68.9400024414 71.1100006104 70.9400024414
 64.9100036621 63.5999984741 60.7400016785 59.4700012207 59.3800010681 59.2799987793 59.1599998474 59.0600013733 59.0600013733 55.2400016785 53.0299987793 62.7700004578 63.0200004578 63.2799987793 63.5800018311 63.7299995422 63.7000007629 65.1699981689 66.3499984741 58.0499992371 55.5499992371 48.6300010681 47.9500007629 48.4000015259 54.6100006104 59.9599990845 62.7500000000 62.9700012207 63.1800003052 63.4099998474 65.2699966431 68.7799987793 70.5199966431 71.2399978638 71.2900009155
 65.7500000000 65.9899978638 66.0699996948 65.5000000000 61.0499992371 59.4900016785 59.3899993896 59.2799987793 59.1899986267 49.3199996948 62.6199989319 62.9099998474 63.1399993896 63.4000015259 63.6800003052 63.9599990845 64.2099990845 65.6500015259 66.5999984741 66.4499969482 66.2399978638 54.6800003052 55.2799987793 47.9500007629 48.0600013733 52.3899993896 56.4799995422 61.1800003052 62.8699989319 63.0900001526 65.2900009155 68.9899978638 70.3399963379 70.9000015259 71.0199966431
 65.9000015259 66.0899963379 64.9899978638 64.3799972534 60.9700012207 59.7599983215 60.1100006104 59.4900016785 54.7099990845 52.0000000000 62.7400016785 63.0000000000 63.2799987793 63.5600013733 63.8600006104 64.3499984741 65.7799987793 66.9100036621 66.8499984741 66.6999969482 66.5100021362 66.3799972534 63.9199981689 56.4199981689 60.8600006104 60.3400001526 49.4199981689 53.4099998474 57.5600013733 61.7700004578 66.2799987793 70.0999984741 70.4800033569 70.5999984741 70.6900024414
 65.9800033569 65.9800033569 64.9499969482 65.6500015259 51.6199989319 59.6300010681 60.1699981689 56.9500007629 48.8899993896 61.9700012207 62.9000015259 63.1599998474 63.4500007629 63.7200012207 64.0199966431 64.3799972534 66.9899978638 67.2799987793 67.1299972534 66.9499969482 66.8199996948 66.6699981689 66.5100021362 66.3099975586 61.5000000000 61.7200012207 56.8800010681 48.0299987793 50.5600013733 55.5900001526 64.0500030518 70.0299987793 70.1399993896 70.2500000000 70.3799972534
 66.0000000000 65.9499969482 65.7200012207 65.4400024414 48.9599990845 59.9000015259 60.1699981689 56.6899986267 61.9599990845 62.4799995422 62.5600013733 63.3100013733 63.6199989319 63.8899993896 64.2099990845 67.6299972534 68.3300018311 67.5400009155 67.4100036621 67.2900009155 67.1500015259 66.9700012207 66.7699966431 66.5699996948 64.6399993896 64.5299987793 58.4500007629 57.1800003052 55.7299995422 52.1500015259 62.5600013733 69.6500015259 69.7900009155 69.9499969482 70.0800018311
